-3.130303323268890381e-01 4.761534035205841064e-01 -1.343016773462295532e-01 9.553999900817871094e-01 1.052000001072883606e-01 2.759999930858612061e-01
1.252556592226028442e-01 -8.479318022727966309e-02 7.200354337692260742e-02 -6.221999973058700562e-02 9.976000189781188965e-01 -3.113999962806701660e-02
2.894663214683532715e-01 -3.913838788866996765e-02 -4.122723042964935303e-01 1.112999990582466125e-01 -8.597000241279602051e-01 -4.984999895095825195e-01
-2.683807611465454102e-01 -2.242622151970863342e-02 -1.364378035068511963e-01 -8.654999732971191406e-01 -4.803999960422515869e-01 -1.419000029563903809e-01
-3.329885900020599365e-01 3.661420941352844238e-01 -1.930664926767349243e-01 -9.286999702453613281e-01 -3.451000154018402100e-02 -3.693000078201293945e-01
-3.537636399269104004e-01 3.100160062313079834e-01 -8.368348330259323120e-02 -9.904999732971191406e-01 -8.814000338315963745e-02 -1.050999984145164490e-01
2.856128811836242676e-01 -2.952240705490112305e-01 2.017427235841751099e-01 -5.559999942779541016e-01 7.983000278472900391e-01 2.312999963760375977e-01
-1.822440177202224731e-01 5.757437273859977722e-02 -2.318521291017532349e-01 7.874000072479248047e-01 5.963000059127807617e-01 1.565999984741210938e-01
4.938447773456573486e-01 -7.710810303688049316e-01 -3.447744250297546387e-01 9.567000269889831543e-01 2.698999941349029541e-01 -1.088000014424324036e-01
2.775709331035614014e-01 -8.129577338695526123e-02 3.037539720535278320e-01 1.409000009298324585e-01 -9.581999778747558594e-01 2.490999996662139893e-01
-1.847571134567260742e-01 -5.895927548408508301e-01 3.025183677673339844e-01 -9.735000133514404297e-01 1.990000009536743164e-01 1.125999987125396729e-01
1.437898129224777222e-01 -8.563088625669479370e-02 -5.316407419741153717e-03 -7.012999802827835083e-02 9.966999888420104980e-01 4.077000170946121216e-02
-1.438772231340408325e-01 -6.238463521003723145e-02 -3.298842608928680420e-01 -3.438999950885772705e-01 -8.277000188827514648e-01 -4.433999955654144287e-01
5.981014668941497803e-02 -1.259243786334991455e-01 1.578052192926406860e-01 4.033000022172927856e-02 -9.940000176429748535e-01 1.014000028371810913e-01
-3.666432797908782959e-01 4.117968976497650146e-01 3.629646822810173035e-02 -9.925000071525573730e-01 -1.111999973654747009e-01 5.006999894976615906e-02
5.593531131744384766e-01 -2.163040451705455780e-02 -3.063596785068511963e-02 2.467000037431716919e-01 9.690999984741210938e-01 -5.011000204831361771e-03
1.101770102977752686e-01 -4.269862547516822815e-02 -4.199582338333129883e-01 7.691999897360801697e-03 -8.313999772071838379e-01 -5.557000041007995605e-01
5.626201629638671875e-01 -4.824840277433395386e-02 2.825452387332916260e-02 1.614000052213668823e-01 -9.868999719619750977e-01 8.383000269532203674e-03
-1.737413406372070312e-01 -1.080394238233566284e-01 1.181818991899490356e-01 -3.291999995708465576e-01 -9.358999729156494141e-01 1.254999935626983643e-01
-2.653441429138183594e-01 1.801386848092079163e-02 2.347481995820999146e-01 -8.292999863624572754e-01 -4.735000133514404297e-01 2.967999875545501709e-01
-2.435428947210311890e-01 1.134281978011131287e-01 4.601381719112396240e-02 8.705999851226806641e-01 4.889000058174133301e-01 5.479000136256217957e-02
3.971948623657226562e-01 -5.331944227218627930e-01 1.844860464334487915e-01 9.447000175714492798e-02 8.068000078201293945e-01 5.832999944686889648e-01
-3.937384113669395447e-02 -1.263013482093811035e-01 -1.649615764617919922e-01 1.570000052452087402e-01 -9.750000238418579102e-01 1.571000069379806519e-01
-1.755423843860626221e-01 -7.197508215904235840e-01 3.351677954196929932e-01 6.640999913215637207e-01 1.575000025331974030e-02 7.475000023841857910e-01
3.440426290035247803e-01 -2.083542943000793457e-01 2.089050859212875366e-01 9.160000085830688477e-01 2.973000109195709229e-01 2.693000137805938721e-01
-3.006951510906219482e-01 2.222248315811157227e-01 2.549158930778503418e-01 -9.106000065803527832e-01 -2.536999993026256561e-02 4.124999940395355225e-01
1.201456710696220398e-01 -1.311390697956085205e-01 2.722833864390850067e-02 7.146999984979629517e-02 -9.969999790191650391e-01 3.031999990344047546e-02
-1.847571134567260742e-01 -5.895927548408508301e-01 3.025183677673339844e-01 -9.735000133514404297e-01 1.990000009536743164e-01 1.125999987125396729e-01
-2.547262609004974365e-01 3.862679004669189453e-01 -3.085018992424011230e-01 -6.556000113487243652e-01 1.377000063657760620e-01 -7.425000071525573730e-01
-3.878790438175201416e-01 6.954639554023742676e-01 -2.795531973242759705e-02 9.167000055313110352e-01 3.894000053405761719e-01 8.996000140905380249e-02
4.035614132881164551e-01 -8.056277781724929810e-02 -1.140292584896087646e-01 2.657000124454498291e-01 -9.617000222206115723e-01 -6.722000241279602051e-02
-2.138044834136962891e-01 2.626858353614807129e-01 -3.551619350910186768e-01 9.541000127792358398e-01 5.696000158786773682e-02 2.940999865531921387e-01
2.018681168556213379e-02 -8.328531682491302490e-02 3.405081629753112793e-01 4.062999971210956573e-03 -9.121999740600585938e-01 4.097999930381774902e-01
3.881476521492004395e-01 -8.590313792228698730e-02 9.374192357063293457e-02 2.549999952316284180e-01 -9.653000235557556152e-01 5.708999931812286377e-02
-2.562131583690643311e-01 1.359833478927612305e-01 -2.324324287474155426e-02 8.848999738693237305e-01 4.645999968051910400e-01 3.172000125050544739e-02
-2.693441510200500488e-01 2.581832110881805420e-01 3.084869682788848877e-01 -7.935000061988830566e-01 4.712999984622001648e-02 6.067000031471252441e-01
3.508698642253875732e-01 -3.987850546836853027e-01 2.458687126636505127e-01 -8.589000105857849121e-01 -6.100000068545341492e-02 5.084999799728393555e-01
2.987857460975646973e-01 -5.673014000058174133e-02 -1.753909736871719360e-01 -1.588000059127807617e-01 9.868999719619750977e-01 2.810000069439411163e-02
-3.327163457870483398e-01 5.662693381309509277e-01 1.106635108590126038e-01 9.473000168800354004e-01 2.089000046253204346e-01 -2.430000007152557373e-01
-3.145755454897880554e-02 -1.425527632236480713e-01 1.322133988142013550e-01 -8.041000366210937500e-02 -9.945999979972839355e-01 -6.582999974489212036e-02
-1.201074272394180298e-01 -1.180499717593193054e-01 -1.658411771059036255e-01 -2.022999972105026245e-01 -9.722999930381774902e-01 -1.168000027537345886e-01
-3.788946866989135742e-01 6.934115886688232422e-01 9.267385303974151611e-02 8.812999725341796875e-01 4.307999908924102783e-01 -1.942999958992004395e-01
2.756442129611968994e-01 -2.822731249034404755e-02 -3.417168259620666504e-01 -1.415999978780746460e-01 9.557999968528747559e-01 2.576999962329864502e-01
-9.246324747800827026e-02 -1.440521888434886932e-02 -4.266598522663116455e-01 -3.021999895572662354e-01 -6.136999726295471191e-01 -7.293999791145324707e-01
-2.238359600305557251e-01 1.081506609916687012e-01 -2.039147466421127319e-01 8.677999973297119141e-01 4.808999896049499512e-01 1.253000050783157349e-01
-1.874168366193771362e-01 8.785732090473175049e-02 -4.008376598358154297e-01 -6.097999811172485352e-01 -8.460000157356262207e-02 -7.879999876022338867e-01
-2.635849416255950928e-01 1.509991586208343506e-01 3.449540585279464722e-02 9.230999946594238281e-01 3.831999897956848145e-01 -3.232999891042709351e-02
4.567135870456695557e-01 -2.070892974734306335e-02 1.743707805871963501e-01 -1.700000017881393433e-01 9.847000241279602051e-01 -3.914000093936920166e-02
5.460336804389953613e-01 -4.835311323404312134e-02 -1.664275676012039185e-01 1.309999972581863403e-01 -9.908000230789184570e-01 -3.496000170707702637e-02
4.046294689178466797e-01 -5.843989849090576172e-01 -3.084181249141693115e-01 -8.809999823570251465e-01 -9.019999951124191284e-02 -4.643999934196472168e-01
-3.353760540485382080e-01 2.077953964471817017e-01 -1.445006877183914185e-01 -9.847000241279602051e-01 -9.940999746322631836e-02 -1.430000066757202148e-01
5.193318724632263184e-01 -1.626910828053951263e-02 2.078370153903961182e-01 1.096000000834465027e-01 9.936000108718872070e-01 -2.765000052750110626e-02
-3.088418245315551758e-01 2.884451746940612793e-01 -2.433495968580245972e-01 -9.064999818801879883e-01 -2.746999962255358696e-03 -4.221999943256378174e-01
-2.543492615222930908e-01 -4.680336639285087585e-02 -1.154742985963821411e-01 -7.649999856948852539e-01 -6.281999945640563965e-01 -1.418000012636184692e-01
-3.062449395656585693e-01 4.626873433589935303e-01 -2.416322976350784302e-01 -8.057000041007995605e-01 3.138000145554542542e-02 -5.914999842643737793e-01
-3.602767586708068848e-01 6.272749900817871094e-01 -3.606009110808372498e-02 9.618999958038330078e-01 2.678000032901763916e-01 5.592999979853630066e-02
-2.687368094921112061e-01 2.458899170160293579e-01 2.046118527650833130e-01 9.769999980926513672e-01 8.562999963760375977e-02 -1.955000013113021851e-01
5.553740859031677246e-01 -2.152569033205509186e-02 1.184332072734832764e-01 2.066999971866607666e-01 9.783999919891357422e-01 9.352999739348888397e-03
-4.401098191738128662e-01 7.339773178100585938e-01 5.577305331826210022e-02 -9.488000273704528809e-01 -2.969000041484832764e-01 1.075000017881393433e-01
9.683659672737121582e-02 -3.036345168948173523e-02 -3.656750917434692383e-01 -5.619000177830457687e-03 9.268000125885009766e-01 3.756000101566314697e-01
1.007319167256355286e-01 -7.444754987955093384e-02 -2.027838379144668579e-01 -5.014000087976455688e-02 9.789999723434448242e-01 1.976999938488006592e-01
1.032450199127197266e-01 -3.996855616569519043e-01 -2.334018647670745850e-01 2.809999883174896240e-01 5.738000273704528809e-01 -7.692999839782714844e-01
4.041687250137329102e-01 -5.732994079589843750e-01 2.271460443735122681e-01 1.995999962091445923e-01 -7.789999842643737793e-01 -5.943999886512756348e-01
-3.476065099239349365e-01 5.867720246315002441e-01 2.714456617832183838e-02 9.782000184059143066e-01 1.900999993085861206e-01 -8.376000076532363892e-02
-3.544756770133972168e-01 3.546446263790130615e-01 1.002550572156906128e-01 -9.842000007629394531e-01 -8.466000109910964966e-02 1.554999947547912598e-01
3.877916336059570312e-01 -5.401054620742797852e-01 2.848218977451324463e-01 -8.747000098228454590e-01 -7.801000028848648071e-02 4.783000051975250244e-01
-1.164634227752685547e-01 -3.622193336486816406e-01 -2.163127511739730835e-01 -5.324000120162963867e-01 -7.034999877214431763e-02 8.435999751091003418e-01
-3.875649273395538330e-01 5.997983217239379883e-01 -1.115789785981178284e-01 -9.463999867439270020e-01 -2.179999947547912598e-01 -2.384999990463256836e-01
-3.199414014816284180e-01 4.978708624839782715e-01 -1.122700870037078857e-01 9.843000173568725586e-01 9.863000363111495972e-02 1.464000046253204346e-01
-2.935956418514251709e-01 2.595863640308380127e-01 -4.630100727081298828e-02 9.779999852180480957e-01 2.074999958276748657e-01 1.939000003039836884e-02
4.907453060150146484e-01 -1.400731131434440613e-02 3.263719379901885986e-01 2.150000035762786865e-01 9.743000268936157227e-01 6.720999628305435181e-02
3.125869035720825195e-01 -6.198672577738761902e-02 1.229629013687372208e-02 -1.960999965667724609e-01 9.799000024795532227e-01 3.743999823927879333e-02
6.286776065826416016e-02 -8.898168802261352539e-02 -5.002878233790397644e-02 -3.781000152230262756e-02 9.987000226974487305e-01 -3.358000144362449646e-02
-2.148306518793106079e-01 -8.023481965065002441e-01 3.222043514251708984e-01 -1.546000037342309952e-02 -3.226999938488006592e-01 -9.463999867439270020e-01
2.977595627307891846e-01 -7.151558995246887207e-02 -3.317271769046783447e-01 1.433999985456466675e-01 -9.465000033378601074e-01 -2.890000045299530029e-01
2.662828862667083740e-01 -3.664622083306312561e-02 3.107278347015380859e-01 -1.200999990105628967e-01 9.718000292778015137e-01 -2.029000073671340942e-01
-2.483970299363136292e-02 -7.099202275276184082e-02 -1.856528222560882568e-01 2.335000038146972656e-01 9.472000002861022949e-01 2.195000052452087402e-01
-1.463903486728668213e-01 -4.702829718589782715e-01 2.804867923259735107e-01 -7.294999957084655762e-01 3.510000109672546387e-01 5.871000289916992188e-01
2.968799769878387451e-01 -1.228248775005340576e-01 -1.620296090841293335e-01 5.925999954342842102e-03 -9.998999834060668945e-01 1.032000035047531128e-02
-2.113332450389862061e-01 6.752208620309829712e-02 5.631756037473678589e-02 7.799000144004821777e-01 6.255999803543090820e-01 -1.992000080645084381e-02
1.437479406595230103e-01 -1.099661439657211304e-01 2.342036962509155273e-01 5.944000184535980225e-02 -9.803000092506408691e-01 1.886000037193298340e-01
-3.325906693935394287e-01 1.762349456548690796e-01 1.327997893095016479e-01 -9.807999730110168457e-01 -1.326999962329864502e-01 1.430999934673309326e-01
-2.300768345594406128e-01 9.566889703273773193e-02 8.536489307880401611e-02 8.120999932289123535e-01 5.703999996185302734e-01 -1.231999993324279785e-01
-3.453237712383270264e-01 2.766335904598236084e-01 -1.201654374599456787e-01 -9.858999848365783691e-01 -7.947999984025955200e-02 -1.473000049591064453e-01
-2.060347944498062134e-01 7.072630524635314941e-02 1.537633091211318970e-01 8.021000027656555176e-01 5.971999764442443848e-01 9.219999774359166622e-04
-3.420148491859436035e-01 5.670022964477539062e-01 1.928630769252777100e-01 -8.357999920845031738e-01 -1.446000039577484131e-01 5.296999812126159668e-01
-3.212607502937316895e-01 5.183736085891723633e-01 -1.237256675958633423e-01 9.794999957084655762e-01 1.283999979496002197e-01 1.553000062704086304e-01
-4.385555163025856018e-02 -1.367935687303543091e-01 1.402553617954254150e-01 -5.547999739646911621e-01 -6.244000196456909180e-01 -5.497999787330627441e-01
-3.389990925788879395e-01 1.729260236024856567e-01 8.574185520410537720e-02 -9.812999963760375977e-01 -1.474000066518783569e-01 1.234999969601631165e-01
-1.704952418804168701e-01 8.412954956293106079e-02 3.396914005279541016e-01 8.159999847412109375e-01 5.103999972343444824e-01 -2.712999880313873291e-01
4.263724014163017273e-02 -8.973562717437744141e-02 4.884106665849685669e-02 -3.008000086992979050e-03 9.998000264167785645e-01 -1.926000043749809265e-02
-1.203168556094169617e-01 4.232818633317947388e-02 3.990007340908050537e-01 6.765000224113464355e-01 7.360000014305114746e-01 -2.635999955236911774e-02
-2.527157366275787354e-01 -5.936890840530395508e-02 -1.000754162669181824e-02 -7.522000074386596680e-01 -6.589000225067138672e-01 -1.008000038564205170e-02
3.826607167720794678e-01 -4.483979940414428711e-01 -2.814441323280334473e-01 -4.573999941349029541e-01 1.439999938011169434e-01 -8.774999976158142090e-01
-2.502818405628204346e-02 -1.286259591579437256e-01 1.451977938413619995e-01 -8.041000366210937500e-02 -9.945999979972839355e-01 -6.582999974489212036e-02
3.515191078186035156e-01 -6.632183492183685303e-02 -3.113500773906707764e-01 2.119999974966049194e-01 -9.516999721527099609e-01 -2.221000045537948608e-01
-2.166316956281661987e-01 7.445408403873443604e-02 4.176247864961624146e-02 8.180999755859375000e-01 5.744000077247619629e-01 -2.630000002682209015e-02
1.165644899010658264e-01 -1.265735924243927002e-01 -1.293592154979705811e-01 4.707999899983406067e-02 -9.939000010490417480e-01 -9.978000074625015259e-02
-9.242134541273117065e-02 -3.732560873031616211e-01 2.535546422004699707e-01 7.393000125885009766e-01 -3.116999939084053040e-02 6.725999712944030762e-01
4.219280183315277100e-01 -9.211462922394275665e-03 3.255132734775543213e-01 -1.076000034809112549e-01 9.840000271797180176e-01 -1.422999948263168335e-01
-2.807578444480895996e-01 3.074695169925689697e-02 2.024338245391845703e-01 -8.927000164985656738e-01 -3.596999943256378174e-01 2.716000080108642578e-01
-3.241089284420013428e-01 2.191462665796279907e-01 1.920672506093978882e-01 -9.574000239372253418e-01 -7.320000231266021729e-02 2.791999876499176025e-01
3.743046224117279053e-01 -3.057287819683551788e-02 -4.012984037399291992e-01 1.736000031232833862e-01 -9.067000150680541992e-01 -3.844999969005584717e-01
-3.394389152526855469e-01 2.891991138458251953e-01 -1.594955772161483765e-01 -9.531000256538391113e-01 -5.192000046372413635e-02 -2.982000112533569336e-01
-1.248195096850395203e-01 -1.023011654615402222e-01 -2.408574372529983521e-01 -1.929000020027160645e-01 -9.563000202178955078e-01 -2.195000052452087402e-01
-1.630815863609313965e-01 -6.413208842277526855e-01 3.241311013698577881e-01 6.908000111579895020e-01 1.551000028848648071e-02 7.228999733924865723e-01
2.289213687181472778e-01 -8.324342966079711914e-02 3.176388740539550781e-01 8.020000159740447998e-02 -9.527000188827514648e-01 2.933000028133392334e-01
3.944513797760009766e-01 -5.074560642242431641e-01 2.922984063625335693e-01 -2.448000013828277588e-01 1.670999974012374878e-01 9.550999999046325684e-01
1.007319167256355286e-01 -7.444754987955093384e-02 -2.027838379144668579e-01 -5.014000087976455688e-02 9.789999723434448242e-01 1.976999938488006592e-01
1.641669422388076782e-01 -2.001782692968845367e-02 -3.905339241027832031e-01 2.388999983668327332e-02 9.549000263214111328e-01 2.960000038146972656e-01
-1.585998684167861938e-01 -5.738648772239685059e-01 -3.142192065715789795e-01 -7.449999917298555374e-03 2.544000148773193359e-01 -9.671000242233276367e-01
-1.467044800519943237e-01 1.895628497004508972e-02 2.375545054674148560e-01 6.923000216484069824e-01 7.002000212669372559e-01 -1.741999983787536621e-01
1.724183112382888794e-01 -1.046467274427413940e-01 2.535336911678314209e-01 5.945000052452087402e-02 -9.717000126838684082e-01 2.286999970674514771e-01
-1.425578594207763672e-01 -5.407546758651733398e-01 2.560048997402191162e-01 -1.665000058710575104e-02 -2.387000024318695068e-01 -9.708999991416931152e-01
-3.178261816501617432e-01 5.482167601585388184e-01 2.225386947393417358e-01 -7.172999978065490723e-01 1.946000009775161743e-02 6.965000033378601074e-01
-1.795005351305007935e-01 -5.616344213485717773e-01 2.861412763595581055e-01 -9.685999751091003418e-01 2.425000071525573730e-01 5.496999993920326233e-02
1.941985934972763062e-01 -1.246259361505508423e-01 3.252680599689483643e-02 1.140000000596046448e-01 -9.929999709129333496e-01 2.921999990940093994e-02
3.760637938976287842e-01 -3.170253038406372070e-01 2.286957949399948120e-01 9.728999733924865723e-01 2.302999943494796753e-01 1.995999924838542938e-02
-2.326318323612213135e-01 -7.612295448780059814e-02 8.653768151998519897e-02 -7.087000012397766113e-01 -7.013999819755554199e-01 7.635000348091125488e-02
9.237583726644515991e-02 -4.330261349678039551e-01 -2.357893288135528564e-01 3.514999896287918091e-02 -2.700000107288360596e-01 9.621999859809875488e-01
-3.508735597133636475e-01 4.495144486427307129e-01 1.515852808952331543e-01 -9.412000179290771484e-01 -7.344999909400939941e-02 3.296000063419342041e-01
-2.165688723325729370e-01 8.479970693588256836e-02 -1.476630270481109619e-01 7.742999792098999023e-01 6.299999952316284180e-01 5.968999862670898438e-02
-4.040676653385162354e-01 7.241343855857849121e-01 1.349001564085483551e-02 8.417999744415283203e-01 5.346999764442443848e-01 -7.342000305652618408e-02
2.741572856903076172e-01 -1.270887162536382675e-02 -3.978847563266754150e-01 -6.564000248908996582e-02 9.686999917030334473e-01 2.393999993801116943e-01
4.496978521347045898e-01 -7.598885335028171539e-03 3.578695356845855713e-01 1.336999982595443726e-01 9.904000163078308105e-01 3.491999953985214233e-02
-2.657210826873779297e-01 5.409706830978393555e-01 2.488006651401519775e-01 9.110000133514404297e-01 8.794999867677688599e-02 -4.027999937534332275e-01
-1.030182912945747375e-01 -5.300236493349075317e-02 3.710424304008483887e-01 -2.894999980926513672e-01 -8.309000134468078613e-01 4.751999974250793457e-01
3.507861196994781494e-01 -2.695484757423400879e-01 2.314392775297164917e-01 3.120999932289123535e-01 2.648000121116638184e-01 9.124000072479248047e-01
4.210484325885772705e-01 -6.324203014373779297e-01 2.819946408271789551e-01 -2.675999999046325684e-01 -3.163999915122985840e-01 -9.100999832153320312e-01
2.127955704927444458e-01 -1.085839346051216125e-01 1.068519651889801025e-01 -7.714000344276428223e-02 -9.933999776840209961e-01 -8.545000106096267700e-02
-3.541824817657470703e-01 3.515660762786865234e-01 -1.036417484283447266e-01 -9.843000173568725586e-01 -8.432999998331069946e-02 -1.553000062704086304e-01
1.647114604711532593e-01 -8.387170732021331787e-02 -2.070309361442923546e-03 -1.101000010967254639e-01 9.930999875068664551e-01 4.038999974727630615e-02
2.289213687181472778e-01 -8.324342966079711914e-02 3.176388740539550781e-01 8.020000159740447998e-02 -9.527000188827514648e-01 2.933000028133392334e-01
-2.526319921016693115e-01 4.642998874187469482e-01 -2.946798205375671387e-01 -5.256999731063842773e-01 1.652999967336654663e-01 -8.345000147819519043e-01
-2.599409520626068115e-01 4.475877583026885986e-01 -2.567528486251831055e-01 8.677999973297119141e-01 6.781000178307294846e-03 4.968999922275543213e-01
1.476432532072067261e-01 -1.044707372784614563e-02 -4.273090660572052002e-01 -3.996999934315681458e-02 9.865999817848205566e-01 1.580999940633773804e-01
1.012345403432846069e-01 -1.322071403264999390e-01 -2.954695373773574829e-02 4.785000160336494446e-02 -9.983999729156494141e-01 -3.109999932348728180e-02
8.219774067401885986e-02 -1.325003355741500854e-01 -4.937956109642982483e-02 4.785000160336494446e-02 -9.983999729156494141e-01 -3.109999932348728180e-02
-1.736994683742523193e-01 -6.881065368652343750e-01 2.971360981464385986e-01 5.530999898910522461e-01 -3.167999982833862305e-01 -7.706000208854675293e-01
-2.954385876655578613e-01 3.361523449420928955e-01 -1.353069096803665161e-01 9.772999882698059082e-01 1.687999963760375977e-01 1.278000026941299438e-01
3.616762459278106689e-01 -9.344246238470077515e-02 6.611867994070053101e-02 2.518000006675720215e-01 -9.674999713897705078e-01 2.318999916315078735e-02
-4.680845513939857483e-02 -5.823801085352897644e-02 -3.874762952327728271e-01 -1.194999963045120239e-01 -8.851000070571899414e-01 -4.498000144958496094e-01
2.479417622089385986e-02 -3.618548437952995300e-02 4.246972799301147461e-01 -1.566999964416027069e-02 -7.896999716758728027e-01 6.132000088691711426e-01
-2.469565570354461670e-01 3.109793961048126221e-01 -2.808995842933654785e-01 9.023000001907348633e-01 -2.225000038743019104e-02 4.304000139236450195e-01
-9.195606224238872528e-03 -8.447904139757156372e-02 6.427573412656784058e-02 2.148000001907348633e-01 9.745000004768371582e-01 -6.458000093698501587e-02
3.316655457019805908e-01 -3.089623749256134033e-01 -1.450661420822143555e-01 4.950999915599822998e-01 7.613999843597412109e-01 4.185000061988830566e-01
-3.772192895412445068e-01 7.190243601799011230e-01 1.440459638833999634e-01 8.535000085830688477e-01 4.278999865055084229e-01 -2.975000143051147461e-01
-2.162128686904907227e-01 1.838580369949340820e-01 3.734926879405975342e-01 -6.819000244140625000e-01 1.280999928712844849e-01 7.202000021934509277e-01
-2.578676342964172363e-01 2.539528012275695801e-01 3.227907717227935791e-01 -7.609999775886535645e-01 6.452000141143798828e-02 6.455000042915344238e-01
-2.022022753953933716e-01 -7.796255946159362793e-01 -3.645860850811004639e-01 1.172999963164329529e-01 2.422000020742416382e-01 -9.631000161170959473e-01
-6.297610700130462646e-02 -2.473912537097930908e-01 2.097427845001220703e-01 8.180999755859375000e-01 -9.853000193834304810e-02 5.666000247001647949e-01
-1.414688378572463989e-01 -8.352817967534065247e-03 6.582548469305038452e-02 6.876999735832214355e-01 7.239999771118164062e-01 -5.435999855399131775e-02
-1.558773219585418701e-01 8.610659278929233551e-03 -1.189926490187644958e-01 6.941999793052673340e-01 7.039999961853027344e-01 1.495999991893768311e-01
-3.666766220703721046e-03 -1.361652761697769165e-01 2.551104873418807983e-02 2.446999959647655487e-02 -9.991999864578247070e-01 3.237999975681304932e-02
-3.601720631122589111e-01 6.726784110069274902e-01 1.274804025888442993e-01 8.726000189781188965e-01 3.980000019073486328e-01 -2.831999957561492920e-01
1.585752815008163452e-01 -2.845768071711063385e-02 -3.665128052234649658e-01 -1.010999977588653564e-01 9.409999847412109375e-01 3.228999972343444824e-01
-5.470379441976547241e-02 -2.426372766494750977e-01 2.158370614051818848e-01 8.939999938011169434e-01 -8.330000191926956177e-02 4.402999877929687500e-01
-3.081297874450683594e-01 8.513478934764862061e-02 -1.767941266298294067e-01 -9.341999888420104980e-01 -2.675999999046325684e-01 -2.358999997377395630e-01
-4.203354567289352417e-02 -1.327432040125131607e-02 3.807388246059417725e-01 3.605999946594238281e-01 8.737999796867370605e-01 -3.262999951839447021e-01
1.903032511472702026e-01 -9.792417287826538086e-02 -2.808786630630493164e-01 8.731000125408172607e-02 -9.599000215530395508e-01 -2.662000060081481934e-01
2.141987234354019165e-01 -6.655219942331314087e-02 3.659324347972869873e-01 5.733000114560127258e-02 -9.244999885559082031e-01 3.768000006675720215e-01
7.072121649980545044e-02 -1.016938239336013794e-01 -2.873080074787139893e-01 2.576000057160854340e-02 -9.545000195503234863e-01 -2.969999909400939941e-01
2.730473279953002930e-01 -1.113692894577980042e-01 1.071242168545722961e-01 5.220000147819519043e-01 -8.047000169754028320e-01 -2.827999889850616455e-01
1.662821471691131592e-01 -7.396586984395980835e-02 -1.703019291162490845e-01 -1.313000023365020752e-01 9.836999773979187012e-01 1.231999993324279785e-01
3.593516349792480469e-01 -2.579253613948822021e-01 2.179103791713714600e-01 9.743000268936157227e-01 2.029999941587448120e-01 9.764999896287918091e-02
-2.398360818624496460e-01 4.032104611396789551e-01 -2.939468324184417725e-01 8.813999891281127930e-01 -1.981999911367893219e-02 4.720000028610229492e-01
2.062660641968250275e-02 -4.068813845515251160e-02 -4.223247468471527100e-01 -1.353999972343444824e-02 -7.675999999046325684e-01 -6.406999826431274414e-01
3.893499495461583138e-03 -1.357673853635787964e-01 3.120742551982402802e-02 2.446999959647655487e-02 -9.991999864578247070e-01 3.237999975681304932e-02
6.260004825890064240e-03 -3.279573023319244385e-01 -2.064069062471389771e-01 -3.061000108718872070e-01 -5.572999715805053711e-01 7.717999815940856934e-01
-4.463925957679748535e-01 7.568885087966918945e-01 -5.587175861001014709e-02 1.169999986886978149e-01 9.927999973297119141e-01 -2.645000070333480835e-02
-3.584547638893127441e-01 5.504157543182373047e-01 -1.633280515670776367e-01 -9.258999824523925781e-01 -1.283999979496002197e-01 -3.551999926567077637e-01
5.793532729148864746e-01 -4.225882887840270996e-02 -1.040815487504005432e-01 9.269999861717224121e-01 -3.526999950408935547e-01 -1.272999942302703857e-01
1.368997246026992798e-01 -5.555735528469085693e-02 3.950635492801666260e-01 2.081000059843063354e-02 -8.623999953269958496e-01 5.058000087738037109e-01
-3.430410027503967285e-01 1.737008988857269287e-01 -2.049366943538188934e-03 -9.902999997138977051e-01 -1.391000002622604370e-01 2.073999959975481033e-03
-5.788706615567207336e-02 -1.524376571178436279e-01 -1.606474220752716064e-01 1.827999949455261230e-01 -7.077999711036682129e-01 6.823999881744384766e-01
2.909322679042816162e-01 -1.448564529418945312e-01 1.920672506093978882e-01 -7.483000159263610840e-01 -4.153999984264373779e-01 -5.171999931335449219e-01
-1.558773219585418701e-01 8.610659278929233551e-03 -1.189926490187644958e-01 6.941999793052673340e-01 7.039999961853027344e-01 1.495999991893768311e-01
3.380739688873291016e-01 -2.543860673904418945e-01 -1.847523003816604614e-01 -5.155000090599060059e-02 -2.456000000238418579e-01 9.679999947547912598e-01
2.555602788925170898e-01 -7.157841324806213379e-02 4.951122775673866272e-02 -1.796000003814697266e-01 9.782999753952026367e-01 -1.035000011324882507e-01
5.712949484586715698e-02 -1.270343214273452759e-01 -1.513279676437377930e-01 4.112999886274337769e-02 -9.939000010490417480e-01 -1.018999963998794556e-01
3.256550431251525879e-01 -1.811080127954483032e-01 -1.799145787954330444e-01 3.213999867439270020e-01 6.606000065803527832e-01 -6.784999966621398926e-01
4.768812954425811768e-01 -1.241567544639110565e-02 -2.646481394767761230e-01 -4.106999933719635010e-02 9.969000220298767090e-01 6.690999865531921387e-02
3.227066993713378906e-02 -2.334769442677497864e-02 3.832728862762451172e-01 7.305999845266342163e-02 9.280999898910522461e-01 -3.650999963283538818e-01
-1.260132342576980591e-01 -1.279139220714569092e-01 1.451620087027549744e-02 -1.451999992132186890e-01 -9.887999892234802246e-01 3.506999835371971130e-02
4.711011350154876709e-01 -7.352691888809204102e-01 -3.543242216110229492e-01 5.214999914169311523e-01 3.343999981880187988e-01 -7.850000262260437012e-01
-7.707046717405319214e-02 -3.388180211186408997e-02 2.636070549488067627e-01 5.103999972343444824e-01 8.424000144004821777e-01 -1.729000061750411987e-01
-7.294477522373199463e-02 -6.041603162884712219e-02 -8.977776020765304565e-02 4.894999861717224121e-01 8.668000102043151855e-01 9.482999891042709351e-02
4.208180606365203857e-01 -6.400433778762817383e-01 3.214713633060455322e-01 -2.707000076770782471e-01 1.527999937534332275e-01 9.503999948501586914e-01
-2.226422280073165894e-01 3.162778615951538086e-01 -3.332350850105285645e-01 9.388999938964843750e-01 -2.809999859891831875e-04 3.440999984741210938e-01
3.290058672428131104e-01 -2.709641307592391968e-02 3.118587434291839600e-01 -1.743000000715255737e-01 9.614999890327453613e-01 -2.124000042676925659e-01
-3.461824357509613037e-01 6.763852834701538086e-01 -1.675165742635726929e-01 8.571000099182128906e-01 3.037999868392944336e-01 4.160999953746795654e-01
-8.086106926202774048e-02 -1.077043414115905762e-01 2.459105849266052246e-01 -1.516000032424926758e-01 -9.613999724388122559e-01 2.296999990940093994e-01
4.229332804679870605e-01 -5.746312811970710754e-02 2.729265093803405762e-01 2.282000035047531128e-01 -9.613000154495239258e-01 1.544999927282333374e-01
4.254463613033294678e-01 -2.259376086294651031e-02 3.977232575416564941e-01 2.117999941110610962e-01 -7.450000047683715820e-01 6.324999928474426270e-01
-1.025784909725189209e-01 -3.993504941463470459e-01 2.206538617610931396e-01 1.290999948978424072e-01 -2.885999977588653564e-01 -9.487000107765197754e-01
-3.317320644855499268e-01 5.437979102134704590e-01 -2.079776078462600708e-01 -8.312000036239624023e-01 -3.604999929666519165e-02 -5.547999739646911621e-01
4.692163169384002686e-01 -7.136145830154418945e-01 3.432935476303100586e-01 8.076999783515930176e-01 3.488000035285949707e-01 4.754000008106231689e-01
3.719217330217361450e-02 -1.019451394677162170e-01 2.851779162883758545e-01 1.049000024795532227e-02 -9.531000256538391113e-01 3.025000095367431641e-01
4.480434060096740723e-01 -2.718018367886543274e-02 6.444327533245086670e-02 -2.119999974966049194e-01 9.764999747276306152e-01 -3.852000087499618530e-02
-1.543275862932205200e-01 -1.194321811199188232e-01 -6.393464654684066772e-02 -3.307999968528747559e-01 -9.429000020027160645e-01 -3.965000063180923462e-02
3.843779861927032471e-01 -4.685656726360321045e-01 -2.405851781368255615e-01 -2.349999994039535522e-01 -2.761000096797943115e-01 9.319999814033508301e-01
2.139474153518676758e-01 -4.244730994105339050e-02 -4.167540073394775391e-01 2.913999930024147034e-02 -7.407000064849853516e-01 -6.711999773979187012e-01
5.314576029777526855e-01 -1.813299581408500671e-02 1.719205230474472046e-01 1.738000065088272095e-01 9.846000075340270996e-01 1.906999945640563965e-02
-3.178261816501617432e-01 5.482167601585388184e-01 2.225386947393417358e-01 -7.172999978065490723e-01 1.946000009775161743e-02 6.965000033378601074e-01
-3.481091260910034180e-01 4.814518690109252930e-01 -1.698411852121353149e-01 -9.381999969482421875e-01 -8.829999715089797974e-02 -3.348000049591064453e-01
-3.729260563850402832e-01 6.594427227973937988e-01 1.518636383116245270e-02 9.121000170707702637e-01 4.081999957561492920e-01 -3.939000144600868225e-02
-3.201298713684082031e-01 8.685208112001419067e-02 -9.861552715301513672e-02 -9.589999914169311523e-01 -2.511000037193298340e-01 -1.314000040292739868e-01
1.386379599571228027e-01 -1.083954498171806335e-01 2.439419925212860107e-01 6.032000109553337097e-02 -9.800999760627746582e-01 1.893000006675720215e-01
-3.529678285121917725e-01 2.685916423797607422e-01 2.391941286623477936e-02 -9.944000244140625000e-01 -9.543000161647796631e-02 4.577000066637992859e-02
2.272249907255172729e-01 -1.167096495628356934e-01 -1.287309378385543823e-01 -2.829000055789947510e-01 -8.720999956130981445e-01 -3.991999924182891846e-01
-2.514382600784301758e-01 4.740800857543945312e-01 2.898690700531005859e-01 6.280000209808349609e-01 4.499999880790710449e-01 6.349999904632568359e-01
3.734250366687774658e-01 -4.458011388778686523e-01 4.341693967580795288e-02 7.641000151634216309e-01 -4.607999920845031738e-01 -4.514000117778778076e-01
-1.703486293554306030e-01 -1.645759120583534241e-02 3.602151274681091309e-01 -6.370999813079833984e-01 -5.648999810218811035e-01 5.243999958038330078e-01
-2.754174768924713135e-01 3.246967792510986328e-01 -2.130247652530670166e-01 9.311000108718872070e-01 5.807999894022941589e-02 3.601999878883361816e-01
-3.737847208976745605e-01 6.951707601547241211e-01 1.156478375196456909e-01 8.382999897003173828e-01 4.835999906063079834e-01 -2.518000006675720215e-01
-9.859941899776458740e-02 -2.510561943054199219e-01 -2.017786055803298950e-01 -9.496999979019165039e-01 2.213999927043914795e-01 2.215999960899353027e-01
2.479162514209747314e-01 -7.224858552217483521e-02 -7.363105565309524536e-02 -2.210000008344650269e-01 9.751999974250793457e-01 8.046999573707580566e-03
2.496335357427597046e-01 -1.243327409029006958e-01 -1.204376816749572754e-01 -1.756999990902841091e-03 -1.000000000000000000e+00 2.477000001817941666e-03
5.069129467010498047e-01 -1.522197946906089783e-02 -2.311191409826278687e-01 5.403999984264373779e-02 9.975000023841857910e-01 4.585999995470046997e-02
-8.077729493379592896e-02 -9.702363610267639160e-02 -2.860095798969268799e-01 -1.504999995231628418e-01 -9.329000115394592285e-01 -3.271999955177307129e-01
2.528586983680725098e-01 -9.118065983057022095e-02 -2.818838953971862793e-01 1.206000000238418579e-01 -9.623000025749206543e-01 -2.437999993562698364e-01
-1.317469030618667603e-02 -8.248104713857173920e-03 -4.204398989677429199e-01 1.226999983191490173e-01 9.923999905586242676e-01 1.248999964445829391e-02
2.960003912448883057e-01 -1.094635203480720520e-01 3.952162340283393860e-02 2.187999933958053589e-01 -9.754999876022338867e-01 2.414000034332275391e-02
9.752770513296127319e-02 -1.323746740818023682e-01 2.651629038155078888e-02 4.768000170588493347e-02 -9.983999729156494141e-01 3.105000033974647522e-02
-5.317499488592147827e-02 -1.773508638143539429e-02 3.536391556262969971e-01 3.134999871253967285e-01 9.100000262260437012e-01 -2.712000012397766113e-01
-3.211979269981384277e-01 3.426026403903961182e-01 -2.184698283672332764e-01 -8.996000289916992188e-01 -2.570000069681555033e-04 -4.365999996662139893e-01
3.632469475269317627e-01 -4.791332408785820007e-02 -9.465739130973815918e-02 -2.599999904632568359e-01 9.632999897003173828e-01 6.610000133514404297e-02
1.773398071527481079e-01 -4.244730994105339050e-02 -3.196014463901519775e-01 -4.938999935984611511e-02 9.606999754905700684e-01 2.730999886989593506e-01
-4.319840967655181885e-01 7.665849328041076660e-01 6.084115430712699890e-02 -9.782000184059143066e-01 1.714999973773956299e-01 1.168000027537345886e-01
-2.078148871660232544e-01 1.988947987556457520e-01 -3.529629409313201904e-01 8.920000195503234863e-01 1.270000040531158447e-01 4.338999986648559570e-01
2.141987234354019165e-01 -6.655219942331314087e-02 3.659324347972869873e-01 5.733000114560127258e-02 -9.244999885559082031e-01 3.768000006675720215e-01
-1.747256368398666382e-01 1.124229505658149719e-01 -3.788060843944549561e-01 9.246000051498413086e-01 3.526999950408935547e-01 1.442999988794326782e-01
3.583045005798339844e-01 -2.519357800483703613e-01 1.967793405055999756e-01 8.934999704360961914e-01 2.585000097751617432e-01 -3.671999871730804443e-01
-2.871453166007995605e-01 2.313767224550247192e-01 6.888310611248016357e-02 9.858000278472900391e-01 1.535000056028366089e-01 -6.768000125885009766e-02
3.562521338462829590e-01 -4.039578437805175781e-01 -2.267779409885406494e-02 -8.173999786376953125e-01 -3.671999871730804443e-01 -4.438999891281127930e-01
-3.164230287075042725e-01 1.131559312343597412e-01 -1.718935668468475342e-01 -9.614999890327453613e-01 -1.844999939203262329e-01 -2.036000043153762817e-01
3.017386496067047119e-01 -1.852336972951889038e-01 -2.062603235244750977e-01 -9.083999991416931152e-01 6.261999905109405518e-02 4.133000075817108154e-01
3.647966980934143066e-01 -3.623031079769134521e-01 2.566541135311126709e-01 1.167000038549304008e-03 2.286999970674514771e-01 9.735000133514404297e-01
-2.786845266819000244e-01 5.364051461219787598e-01 2.267900258302688599e-01 8.604000210762023926e-01 5.311999842524528503e-02 -5.067999958992004395e-01
4.273521304130554199e-01 -3.208074346184730530e-02 -5.779847130179405212e-02 -1.834000051021575928e-01 9.829999804496765137e-01 -6.947000045329332352e-03
1.921043246984481812e-01 -1.173798069357872009e-01 -1.630348712205886841e-01 1.014000028371810913e-01 -9.904000163078308105e-01 -9.378000348806381226e-02
-1.421808898448944092e-01 -5.505557656288146973e-01 -3.051092028617858887e-01 6.740999817848205566e-01 1.580999977886676788e-02 -7.384999990463256836e-01
-3.276482224464416504e-01 3.646133244037628174e-01 2.027689069509506226e-01 -9.049000144004821777e-01 -1.994000002741813660e-02 4.250999987125396729e-01
1.654280722141265869e-02 -6.215426698327064514e-02 3.856184482574462891e-01 -3.162999823689460754e-02 -8.794000148773193359e-01 4.751000106334686279e-01
1.456955820322036743e-01 -8.491883426904678345e-02 3.300369083881378174e-01 4.281000047922134399e-02 -9.442999958992004395e-01 3.262999951839447021e-01
4.347494617104530334e-02 -7.907585799694061279e-02 -1.869093924760818481e-01 -6.442999839782714844e-02 9.937000274658203125e-01 9.223999828100204468e-02
3.045659065246582031e-01 -1.963960975408554077e-01 1.810514777898788452e-01 -8.474000096321105957e-01 4.079999923706054688e-01 -3.397000133991241455e-01
3.758543729782104492e-01 -4.198657348752021790e-02 1.332605332136154175e-01 -2.205999940633773804e-01 9.718000292778015137e-01 -8.340000361204147339e-02
-2.734488844871520996e-01 2.726126015186309814e-01 1.980777680873870850e-01 9.301000237464904785e-01 1.636999994516372681e-01 -3.287000060081481934e-01
-2.870405912399291992e-01 4.589176774024963379e-01 -2.032864838838577271e-01 9.222000241279602051e-01 -1.300000026822090149e-02 3.865000009536743164e-01
2.258428037166595459e-01 -1.215683221817016602e-01 9.367910027503967285e-02 -7.714000344276428223e-02 -9.933999776840209961e-01 -8.545000106096267700e-02
-3.081297874450683594e-01 8.513478934764862061e-02 -1.767941266298294067e-01 -9.341999888420104980e-01 -2.675999999046325684e-01 -2.358999997377395630e-01
9.237583726644515991e-02 -4.330261349678039551e-01 -2.357893288135528564e-01 3.514999896287918091e-02 -2.700000107288360596e-01 9.621999859809875488e-01
-2.457628250122070312e-01 -4.829028621315956116e-02 -1.548672616481781006e-01 -7.566999793052673340e-01 -6.363999843597412109e-01 -1.498000025749206543e-01
3.040213584899902344e-01 -5.949456244707107544e-02 1.265798658132553101e-01 -2.576999962329864502e-01 9.646999835968017578e-01 -5.457000061869621277e-02
-7.247947622090578079e-03 -9.212307631969451904e-02 3.156493604183197021e-01 -4.577999934554100037e-02 -9.495000243186950684e-01 3.104000091552734375e-01
4.082315564155578613e-01 -8.146331459283828735e-02 -4.946333169937133789e-02 2.666999995708465576e-01 -9.635000228881835938e-01 -2.132000029087066650e-02
-3.236901164054870605e-01 3.258905112743377686e-01 2.099940925836563110e-01 -9.316999912261962891e-01 -3.006999939680099487e-02 3.621000051498413086e-01
-3.295121192932128906e-01 3.699745833873748779e-01 -2.024278193712234497e-01 -9.178000092506408691e-01 -2.405999973416328430e-02 -3.964000046253204346e-01
-8.400244265794754028e-02 -3.654026091098785400e-01 -2.464072108268737793e-01 8.889999985694885254e-01 -9.968999773263931274e-02 -4.469999969005584717e-01
2.426387369632720947e-01 -8.722251653671264648e-02 2.981413900852203369e-01 1.115000024437904358e-01 -9.577999711036682129e-01 2.649999856948852539e-01
3.528175652027130127e-01 -3.371092081069946289e-01 2.495127022266387939e-01 -3.120999969542026520e-02 2.606999874114990234e-01 9.649000167846679688e-01
2.756442129611968994e-01 -2.822731249034404755e-02 -3.417168259620666504e-01 -1.415999978780746460e-01 9.557999968528747559e-01 2.576999962329864502e-01
-2.555174939334392548e-02 -7.972507178783416748e-02 3.448432683944702148e-01 -4.743000119924545288e-02 -9.229999780654907227e-01 3.817999958992004395e-01
4.023676514625549316e-01 -6.164201498031616211e-01 2.790836393833160400e-01 -8.029000163078308105e-01 -5.857999920845031738e-01 1.108999997377395630e-01
-2.164013236761093140e-01 2.769896090030670166e-01 3.455343842506408691e-01 9.585000276565551758e-01 8.636000007390975952e-02 -2.716000080108642578e-01
-4.875611141324043274e-02 -1.336731165647506714e-01 7.533340156078338623e-02 -3.449999913573265076e-02 -9.988999962806701660e-01 3.320999816060066223e-02
8.040125481784343719e-03 -8.868849277496337891e-02 -2.473016455769538879e-02 7.153999805450439453e-02 9.968000054359436035e-01 3.486000001430511475e-02
-3.314807415008544922e-01 2.659947574138641357e-01 -1.815062016248703003e-01 -9.560999870300292969e-01 -7.107000052928924561e-02 -2.843999862670898438e-01
4.421375989913940430e-01 -6.526088714599609375e-01 -2.874336838722229004e-01 4.336999952793121338e-01 -1.040999963879585266e-01 8.949999809265136719e-01
2.347479388117790222e-02 -1.423642933368682861e-01 -1.092962473630905151e-01 8.793000131845474243e-03 -9.998999834060668945e-01 9.092000313103199005e-03
2.706179916858673096e-01 -6.565167009830474854e-02 -1.269927024841308594e-01 -1.204999983310699463e-01 9.905999898910522461e-01 6.528999656438827515e-02
-2.398360818624496460e-01 4.032104611396789551e-01 -2.939468324184417725e-01 8.813999891281127930e-01 -1.981999911367893219e-02 4.720000028610229492e-01
-3.541824817657470703e-01 3.515660762786865234e-01 -1.036417484283447266e-01 -9.843000173568725586e-01 -8.432999998331069946e-02 -1.553000062704086304e-01
1.321293879300355911e-02 -3.689753264188766479e-02 -4.263038337230682373e-01 -3.545000031590461731e-02 -7.213000059127807617e-01 -6.916999816894531250e-01
1.432871967554092407e-01 -7.266743481159210205e-02 -1.993702054023742676e-01 -7.321999967098236084e-02 9.789000153541564941e-01 1.908999979496002197e-01
-3.217633664608001709e-01 8.561646938323974609e-02 -6.854201108217239380e-02 -9.582999944686889648e-01 -2.825999855995178223e-01 -4.365000128746032715e-02
-1.700135618448257446e-01 -6.295511126518249512e-01 2.777642309665679932e-01 1.089999973773956299e-01 -3.296000063419342041e-01 -9.377999901771545410e-01
-1.533851772546768188e-01 1.867152750492095947e-03 -3.476165235042572021e-02 6.444000005722045898e-01 7.644000053405761719e-01 -2.232999913394451141e-02
-5.231634527444839478e-02 -9.057332575321197510e-02 -3.169208168983459473e-01 -8.938000351190567017e-02 -9.445999860763549805e-01 -3.156999945640563965e-01
1.886742934584617615e-02 -7.813344150781631470e-02 1.810095906257629395e-01 6.208999827504158020e-02 9.890999794006347656e-01 -1.333000063896179199e-01
-1.259503960609436035e-01 3.133333846926689148e-02 3.457856774330139160e-01 6.468999981880187988e-01 7.330999970436096191e-01 -2.100999951362609863e-01
-2.875432372093200684e-01 3.555451631546020508e-01 1.752294450998306274e-01 9.591000080108642578e-01 9.831000119447708130e-02 -2.655000090599060059e-01
-1.136152297258377075e-01 3.558468073606491089e-02 -4.090471565723419189e-01 5.993999838829040527e-01 7.961999773979187012e-01 -8.258000016212463379e-02
-2.465377002954483032e-01 1.720673739910125732e-01 3.414715230464935303e-01 -7.846000194549560547e-01 8.782999590039253235e-03 6.200000047683715820e-01
-4.370895028114318848e-02 -1.895269453525543213e-01 1.895122677087783813e-01 8.996000289916992188e-01 -1.984000056982040405e-01 3.890999853610992432e-01
-1.376991719007492065e-01 -1.114740073680877686e-01 1.860567331314086914e-01 -2.788999974727630615e-01 -9.406999945640563965e-01 1.930000036954879761e-01
1.610301248729228973e-02 -1.268039643764495850e-01 -8.416516333818435669e-02 -1.401000022888183594e-01 -9.792000055313110352e-01 1.465999931097030640e-01
1.148471981287002563e-01 -7.779836654663085938e-02 3.502255082130432129e-01 2.237999998033046722e-02 -9.194999933242797852e-01 3.925000131130218506e-01
2.245862334966659546e-01 -1.043535321950912476e-01 -1.393697708845138550e-01 -1.106000021100044250e-01 -9.356999993324279785e-01 -3.350999951362609863e-01
7.415580004453659058e-02 -8.958902955055236816e-02 1.321776304394006729e-02 -4.374000057578086853e-02 9.988999962806701660e-01 1.585000008344650269e-02
-1.596051007509231567e-01 -6.547031402587890625e-01 2.941622734069824219e-01 8.192999958992004395e-01 -3.384000062942504883e-01 -4.629000127315521240e-01
4.889861047267913818e-01 -1.903352513909339905e-02 1.198154166340827942e-01 -5.071000009775161743e-02 9.970999956130981445e-01 -5.697999894618988037e-02
-3.553552627563476562e-01 4.643417894840240479e-01 -1.455268859863281250e-01 -9.398000240325927734e-01 -7.637999951839447021e-02 -3.332000076770782471e-01
4.325459003448486328e-01 -5.675401687622070312e-01 2.682772576808929443e-01 7.228000164031982422e-01 1.079000011086463928e-01 -6.826000213623046875e-01
4.417606294155120850e-01 -5.042642727494239807e-02 2.880051732063293457e-01 2.057999968528747559e-01 -9.650999903678894043e-01 1.621000021696090698e-01
1.145540028810501099e-01 -5.245786160230636597e-02 2.925287485122680664e-01 -7.446999847888946533e-02 9.416999816894531250e-01 -3.280000090599060059e-01
4.233730435371398926e-01 -7.721196860074996948e-02 -5.017537996172904968e-02 2.623000144958496094e-01 -9.648000001907348633e-01 -2.106999978423118591e-02
2.926704883575439453e-01 -1.061336547136306763e-01 -1.325424909591674805e-01 6.809999942779541016e-01 -6.334999799728393555e-01 3.673999905586242676e-01
1.442505568265914917e-01 -5.995529890060424805e-02 -3.903664052486419678e-01 2.683000080287456512e-02 -8.977000117301940918e-01 -4.399000108242034912e-01
1.034963354468345642e-01 -8.146331459283828735e-02 -1.401446461677551270e-01 -5.914000049233436584e-02 9.975000023841857910e-01 3.954999893903732300e-02
-3.789575397968292236e-01 6.909403800964355469e-01 -8.910761028528213501e-02 9.301999807357788086e-01 3.418999910354614258e-01 1.332000046968460083e-01
1.195173934102058411e-01 -1.532669179141521454e-02 -4.077068269252777100e-01 2.985000051558017731e-02 9.458000063896179199e-01 3.233000040054321289e-01
-1.525683999061584473e-01 -5.991844534873962402e-01 2.760260105133056641e-01 -3.723999857902526855e-01 -4.584000110626220703e-01 -8.069000244140625000e-01
1.997274160385131836e-01 -6.931662559509277344e-02 -3.641253709793090820e-01 5.699000135064125061e-02 -9.255999922752380371e-01 -3.740999996662139893e-01
3.402520418167114258e-01 -2.182810753583908081e-01 2.168423086404800415e-01 2.471999973058700562e-01 2.750000059604644775e-01 9.290999770164489746e-01
-1.525683999061584473e-01 -5.991844534873962402e-01 2.760260105133056641e-01 -3.723999857902526855e-01 -4.584000110626220703e-01 -8.069000244140625000e-01
4.804205894470214844e-01 -7.880863547325134277e-01 -3.229103684425354004e-01 1.844999939203262329e-01 -1.816000044345855713e-01 9.659000039100646973e-01
3.244403898715972900e-01 -2.418414652347564697e-01 -1.826161593198776245e-01 -5.155000090599060059e-02 -2.456000000238418579e-01 9.679999947547912598e-01
-2.591870129108428955e-01 1.860989034175872803e-01 1.923813968896865845e-01 9.427999854087829590e-01 2.388000041246414185e-01 -2.326000034809112549e-01
-9.195606224238872528e-03 -8.447904139757156372e-02 6.427573412656784058e-02 2.148000001907348633e-01 9.745000004768371582e-01 -6.458000093698501587e-02
2.987857460975646973e-01 -5.673014000058174133e-02 -1.753909736871719360e-01 -1.588000059127807617e-01 9.868999719619750977e-01 2.810000069439411163e-02
-1.555422544479370117e-01 -5.148277878761291504e-01 2.523609101772308350e-01 -7.971000075340270996e-01 5.155999958515167236e-02 -6.015999913215637207e-01
